ncols        134
nrows        31
xllcorner    4.27007808257
yllcorner    52.4988514722
cellsize     0.000295146324
NODATA_value  -9999
-20.326219558715820312 -20.256460189819335938 -20.256460189819335938 -20.160070419311523438 -20.083269119262695312 -20.027910232543945312 -19.984979629516601562 -19.984979629516601562 -19.964080810546875 -19.932170867919921875 -19.875410079956054688 -19.84449005126953125 -19.84449005126953125 -19.817150115966796875 -19.8031005859375 -19.752809524536132812 -19.71154022216796875 -19.646289825439453125 -19.646289825439453125 -19.575300216674804688 -19.528490066528320312 -19.489299774169921875 -19.459650039672851562 -19.459650039672851562 -19.43119049072265625 -19.403669357299804688 -19.388029098510742188 -19.375810623168945312 -19.375810623168945312 -19.413539886474609375 -19.523809432983398438 -19.692560195922851562 -19.971769332885742188 -19.971769332885742188 -20.238199234008789062 -20.4124908447265625 -20.42694091796875 -20.333469390869140625 -20.333469390869140625 -20.33473968505859375 -20.325300216674804688 -20.270320892333984375 -20.244720458984375 -20.244720458984375 -20.317399978637695312 -20.278890609741210938 -20.177600860595703125 -20.151599884033203125 -20.151599884033203125 -20.108379364013671875 -20.094320297241210938 -20.080219268798828125 -20.03936004638671875 -20.03936004638671875 -20.0097198486328125 -19.996240615844726562 -20.003530502319335938 -20.00724029541015625 -20.00724029541015625 -19.981109619140625 -19.997570037841796875 -20.03694915771484375 -20.094480514526367188 -20.094480514526367188 -20.12162017822265625 -20.161579132080078125 -20.185480117797851562 -20.220279693603515625 -20.220279693603515625 -20.267940521240234375 -20.307870864868164062 -20.327100753784179688 -20.328929901123046875 -20.328929901123046875 -20.335809707641601562 -20.354389190673828125 -20.357929229736328125 -20.327779769897460938 -20.327779769897460938 -20.312990188598632812 -20.299730300903320312 -20.300470352172851562 -20.29882049560546875 -20.29882049560546875 -20.31111907958984375 -20.335180282592773438 -20.314680099487304688 -20.321950912475585938 -20.321950912475585938 -20.312469482421875 -20.335710525512695312 -20.336650848388671875 -20.300750732421875 -20.300750732421875 -20.307659149169921875 -20.275880813598632812 -20.266979217529296875 -20.265279769897460938 -20.265279769897460938 -20.28018951416015625 -20.2603302001953125 -20.272249221801757812 -20.25453948974609375 -20.25453948974609375 -20.253690719604492188 -20.25959014892578125 -20.314250946044921875 -20.33126068115234375 -20.33126068115234375 -20.349939346313476562 -20.385410308837890625 -20.415920257568359375 -20.479009628295898438 -20.479009628295898438 -20.607240676879882812 -20.910490036010742188 -21.686990737915039062 -21.802129745483398438 -21.802129745483398438 -21.854160308837890625 -21.913059234619140625 -21.92610931396484375 -21.914709091186523438 -21.914709091186523438 -21.8900299072265625 -21.861249923706054688 -21.77191925048828125 -21.705959320068359375 -21.705959320068359375 -21.5775604248046875 -21.422779083251953125 -21.31565093994140625 -21.150419235229492188 -21.150419235229492188
-20.256450653076171875 -20.161649703979492188 -20.089090347290039062 -20.089090347290039062 -20.011289596557617188 -19.952289581298828125 -19.8829498291015625 -19.8381500244140625 -19.8381500244140625 -19.802389144897460938 -19.769010543823242188 -19.7606201171875 -19.725740432739257812 -19.725740432739257812 -19.7136993408203125 -19.705789566040039062 -19.674959182739257812 -19.630910873413085938 -19.630910873413085938 -19.602630615234375 -19.570119857788085938 -19.530370712280273438 -19.514270782470703125 -19.514270782470703125 -19.46569061279296875 -19.467250823974609375 -19.429119110107421875 -19.367340087890625 -19.367340087890625 -19.351850509643554688 -19.368509292602539062 -19.432199478149414062 -19.589780807495117188 -19.589780807495117188 -19.866300582885742188 -20.154010772705078125 -20.265600204467773438 -20.3239593505859375 -20.3239593505859375 -20.369569778442382812 -20.3700103759765625 -20.304830551147460938 -20.27165985107421875 -20.27165985107421875 -20.307989120483398438 -20.301240921020507812 -20.264949798583984375 -20.257190704345703125 -20.257190704345703125 -20.238910675048828125 -20.240129470825195312 -20.202489852905273438 -20.204229354858398438 -20.204229354858398438 -20.20829010009765625 -20.205350875854492188 -20.21591949462890625 -20.222200393676757812 -20.222200393676757812 -20.248899459838867188 -20.277410507202148438 -20.286329269409179688 -20.291269302368164062 -20.291269302368164062 -20.337739944458007812 -20.364080429077148438 -20.39263916015625 -20.432390213012695312 -20.281360626220703125 -20.329530715942382812 -20.361330032348632812 -20.370090484619140625 -20.3794403076171875 -20.3794403076171875 -20.410509109497070312 -20.40319061279296875 -20.431140899658203125 -20.396520614624023438 -20.396520614624023438 -20.3959808349609375 -20.404209136962890625 -20.40863037109375 -20.382749557495117188 -20.382749557495117188 -20.393369674682617188 -20.394979476928710938 -20.369749069213867188 -20.365259170532226562 -20.365259170532226562 -20.371080398559570312 -20.344999313354492188 -20.315729141235351562 -20.287130355834960938 -20.287130355834960938 -20.269090652465820312 -20.264310836791992188 -20.296840667724609375 -20.317249298095703125 -20.317249298095703125 -20.333299636840820312 -20.325710296630859375 -20.334299087524414062 -20.333700180053710938 -20.333700180053710938 -20.345830917358398438 -20.33386993408203125 -20.336650848388671875 -20.369039535522460938 -20.369039535522460938 -20.371929168701171875 -20.387399673461914062 -20.424800872802734375 -20.44281005859375 -20.44281005859375 -20.457620620727539062 -20.556230545043945312 -20.733800888061523438 -21.209110260009765625 -21.209110260009765625 -21.680629730224609375 -21.87908935546875 -21.915670394897460938 -21.879459381103515625 -21.879459381103515625 -21.879850387573242188 -21.838970184326171875 -21.796360015869140625 -21.71945953369140625 -21.71945953369140625 -21.580120086669921875 -21.429239273071289062 -21.312360763549804688 -21.124370574951171875 -21.124370574951171875
-20.174940109252929688 -20.111799240112304688 -20.03401947021484375 -20.03401947021484375 -19.967519760131835938 -19.9118194580078125 -19.834089279174804688 -19.747089385986328125 -19.747089385986328125 -19.670389175415039062 -19.586080551147460938 -19.545499801635742188 -19.492830276489257812 -19.492830276489257812 -19.479360580444335938 -19.496410369873046875 -19.523649215698242188 -19.525449752807617188 -19.525449752807617188 -19.567279815673828125 -19.53845977783203125 -19.534200668334960938 -19.522899627685546875 -19.522899627685546875 -19.508359909057617188 -19.452190399169921875 -19.41548919677734375 -19.376989364624023438 -19.376989364624023438 -19.347440719604492188 -19.34413909912109375 -19.33686065673828125 -19.389249801635742188 -19.389249801635742188 -19.519710540771484375 -19.746519088745117188 -19.953939437866210938 -20.18740081787109375 -20.18740081787109375 -20.33950042724609375 -20.382539749145507812 -20.339090347290039062 -20.321300506591796875 -20.321300506591796875 -20.327840805053710938 -20.285829544067382812 -20.263240814208984375 -20.2373199462890625 -20.2373199462890625 -20.227420806884765625 -20.221649169921875 -20.223430633544921875 -20.21353912353515625 -20.21353912353515625 -20.223369598388671875 -20.253589630126953125 -20.282209396362304688 -20.295019149780273438 -20.295019149780273438 -20.3458404541015625 -20.383329391479492188 -20.435850143432617188 -20.466409683227539062 -20.466409683227539062 -20.506429672241210938 -20.529010772705078125 -20.549289703369140625 -20.624460220336914062 -20.624460220336914062 -20.6123199462890625 -20.6105804443359375 -20.593730926513671875 -20.562940597534179688 -20.562940597534179688 -20.566659927368164062 -20.556039810180664062 -20.548189163208007812 -20.548440933227539062 -20.548440933227539062 -20.56230926513671875 -20.559820175170898438 -20.5528106689453125 -20.5492401123046875 -20.5492401123046875 -20.524929046630859375 -20.50785064697265625 -20.501939773559570312 -20.508769989013671875 -20.508769989013671875 -20.480329513549804688 -20.431400299072265625 -20.36302947998046875 -20.346149444580078125 -20.346149444580078125 -20.311279296875 -20.293010711669921875 -20.30261993408203125 -20.314960479736328125 -20.314960479736328125 -20.33242034912109375 -20.308420181274414062 -20.349039077758789062 -20.35430908203125 -20.35430908203125 -20.354679107666015625 -20.394250869750976562 -20.378030776977539062 -20.364650726318359375 -20.364650726318359375 -20.389270782470703125 -20.406240463256835938 -20.40583038330078125 -20.424070358276367188 -20.424070358276367188 -20.430910110473632812 -20.443279266357421875 -20.450639724731445312 -20.550159454345703125 -20.550159454345703125 -20.767559051513671875 -21.307580947875976562 -21.650409698486328125 -21.778779983520507812 -21.778779983520507812 -21.808040618896484375 -21.766450881958007812 -21.730779647827148438 -21.704320907592773438 -21.704320907592773438 -21.560230255126953125 -21.409519195556640625 -21.243709564208984375 -21.0386505126953125 -21.0386505126953125
-20.207990646362304688 -20.122699737548828125 -20.060609817504882812 -20.060609817504882812 -19.974569320678710938 -19.907230377197265625 -19.801910400390625 -19.718059539794921875 -19.718059539794921875 -19.613529205322265625 -19.520639419555664062 -19.44918060302734375 -19.388469696044921875 -19.388469696044921875 -19.332550048828125 -19.327020645141601562 -19.36090087890625 -19.426710128784179688 -19.426710128784179688 -19.490079879760742188 -19.549150466918945312 -19.5799407958984375 -19.572000503540039062 -19.572000503540039062 -19.542650222778320312 -19.508769989013671875 -19.481779098510742188 -19.446859359741210938 -19.446859359741210938 -19.40940093994140625 -19.38069915771484375 -19.339939117431640625 -19.341360092163085938 -19.341360092163085938 -19.330539703369140625 -19.363939285278320312 -19.371530532836914062 -19.557689666748046875 -19.557689666748046875 -19.8381195068359375 -20.059740066528320312 -20.189500808715820312 -20.362779617309570312 -20.362779617309570312 -20.371889114379882812 -20.3204193115234375 -20.295389175415039062 -20.264690399169921875 -20.264690399169921875 -20.258440017700195312 -20.2493896484375 -20.225809097290039062 -20.238149642944335938 -20.238149642944335938 -20.22888946533203125 -20.251010894775390625 -20.279039382934570312 -20.314760208129882812 -20.314760208129882812 -20.404510498046875 -20.436100006103515625 -20.475149154663085938 -20.531890869140625 -20.531890869140625 -20.579500198364257812 -20.634960174560546875 -20.66349029541015625 -20.695039749145507812 -20.695039749145507812 -20.721210479736328125 -20.758069992065429688 -20.756799697875976562 -20.772279739379882812 -20.772279739379882812 -20.773729324340820312 -20.7344207763671875 -20.753969192504882812 -20.697200775146484375 -20.697200775146484375 -20.666210174560546875 -20.66455078125 -20.607530593872070312 -20.576450347900390625 -20.576450347900390625 -20.571420669555664062 -20.525400161743164062 -20.524209976196289062 -20.529909133911132812 -20.529909133911132812 -20.5079803466796875 -20.467569351196289062 -20.470529556274414062 -20.475820541381835938 -20.475820541381835938 -20.452619552612304688 -20.467060089111328125 -20.465410232543945312 -20.460489273071289062 -20.460489273071289062 -20.488130569458007812 -20.492559432983398438 -20.497190475463867188 -20.518280029296875 -20.518280029296875 -20.518390655517578125 -20.495830535888671875 -20.461610794067382812 -20.465549468994140625 -20.465549468994140625 -20.417760848999023438 -20.387380599975585938 -20.365400314331054688 -20.415800094604492188 -20.415800094604492188 -20.414030075073242188 -20.422090530395507812 -20.395320892333984375 -20.4030303955078125 -20.428789138793945312 -20.428789138793945312 -20.472019195556640625 -20.571079254150390625 -20.768999099731445312 -21.086910247802734375 -21.086910247802734375 -21.28820037841796875 -21.368909835815429688 -21.323160171508789062 -21.225650787353515625 -21.225650787353515625 -21.06414031982421875 -20.870069503784179688 -20.571399688720703125 -20.370330810546875
-20.270650863647460938 -20.1875 -20.12899017333984375 -20.12899017333984375 -20.032659530639648438 -19.950469970703125 -19.85092926025390625 -19.748590469360351562 -19.748590469360351562 -19.61273956298828125 -19.480909347534179688 -19.3720703125 -19.29264068603515625 -19.29264068603515625 -19.231130599975585938 -19.182010650634765625 -19.152830123901367188 -19.159360885620117188 -19.159360885620117188 -19.23834991455078125 -19.36074066162109375 -19.468669891357421875 -19.546630859375 -19.546630859375 -19.59683990478515625 -19.598409652709960938 -19.575780868530273438 -19.525699615478515625 -19.525699615478515625 -19.502920150756835938 -19.460599899291992188 -19.4327392578125 -19.410640716552734375 -19.410640716552734375 -19.373479843139648438 -19.380140304565429688 -19.335729598999023438 -19.44351959228515625 -19.44351959228515625 -19.615520477294921875 -19.796899795532226562 -19.9696197509765625 -20.193790435791015625 -20.193790435791015625 -20.303020477294921875 -20.330739974975585938 -20.341159820556640625 -20.353189468383789062 -20.353189468383789062 -20.359579086303710938 -20.35601043701171875 -20.346780776977539062 -20.338560104370117188 -20.338560104370117188 -20.373180389404296875 -20.391550064086914062 -20.405080795288085938 -20.4489898681640625 -20.4489898681640625 -20.478380203247070312 -20.510480880737304688 -20.553850173950195312 -20.5982208251953125 -20.5982208251953125 -20.582700729370117188 -20.641309738159179688 -20.703899383544921875 -20.742700576782226562 -20.742700576782226562 -20.774469375610351562 -20.845500946044921875 -20.879259109497070312 -20.893909454345703125 -20.893909454345703125 -20.92610931396484375 -20.930309295654296875 -20.916749954223632812 -20.864019393920898438 -20.864019393920898438 -20.820989608764648438 -20.791200637817382812 -20.771699905395507812 -20.75160980224609375 -20.75160980224609375 -20.720319747924804688 -20.681850433349609375 -20.649959564208984375 -20.636369705200195312 -20.636369705200195312 -20.588230133056640625 -20.541040420532226562 -20.563669204711914062 -20.538600921630859375 -20.538600921630859375 -20.527530670166015625 -20.5421600341796875 -20.520050048828125 -20.513530731201171875 -20.513530731201171875 -20.519369125366210938 -20.505609512329101562 -20.518690109252929688 -20.534349441528320312 -20.556310653686523438 -20.556310653686523438 -20.564889907836914062 -20.579660415649414062 -20.53070068359375 -20.491750717163085938 -20.491750717163085938 -20.471500396728515625 -20.444139480590820312 -20.399160385131835938 -20.33975982666015625 -20.33975982666015625 -20.331979751586914062 -20.3487701416015625 -20.340879440307617188 -20.345500946044921875 -20.345500946044921875 -20.320470809936523438 -20.269899368286132812 -20.201299667358398438 -20.141729354858398438 -20.141729354858398438 -20.084239959716796875 -20.05529022216796875 -20.01988983154296875 -19.936040878295898438 -19.936040878295898438 -19.83068084716796875 -19.727420806884765625 -19.4885406494140625 -19.533420562744140625
-20.232030868530273438 -20.162260055541992188 -20.106069564819335938 -20.106069564819335938 -20.04730987548828125 -19.952579498291015625 -19.85597991943359375 -19.746339797973632812 -19.746339797973632812 -19.629930496215820312 -19.522359848022460938 -19.399850845336914062 -19.28022003173828125 -19.28022003173828125 -19.180799484252929688 -19.095190048217773438 -19.023950576782226562 -18.975250244140625 -18.975250244140625 -18.957220077514648438 -19.02552032470703125 -19.1494598388671875 -19.320379257202148438 -19.320379257202148438 -19.473829269409179688 -19.56855010986328125 -19.609090805053710938 -19.611669540405273438 -19.611669540405273438 -19.59272003173828125 -19.568510055541992188 -19.54077911376953125 -19.507020950317382812 -19.507020950317382812 -19.451990127563476562 -19.419719696044921875 -19.349050521850585938 -19.45063018798828125 -19.45063018798828125 -19.5415191650390625 -19.662969589233398438 -19.805089950561523438 -20.030750274658203125 -20.030750274658203125 -20.18218994140625 -20.272129058837890625 -20.317209243774414062 -20.314989089965820312 -20.314989089965820312 -20.332490921020507812 -20.340969085693359375 -20.375329971313476562 -20.37628936767578125 -20.37628936767578125 -20.417949676513671875 -20.41696929931640625 -20.449359893798828125 -20.500959396362304688 -20.500959396362304688 -20.561580657958984375 -20.595899581909179688 -20.6501007080078125 -20.711969375610351562 -20.711969375610351562 -20.748849868774414062 -20.777439117431640625 -20.8281707763671875 -20.88925933837890625 -20.88925933837890625 -20.940179824829101562 -20.99600982666015625 -21.029180526733398438 -21.058309555053710938 -21.058309555053710938 -21.079969406127929688 -21.075529098510742188 -21.091030120849609375 -21.083860397338867188 -21.083860397338867188 -21.032850265502929688 -21.008390426635742188 -20.964420318603515625 -20.948530197143554688 -20.945650100708007812 -20.945650100708007812 -20.95655059814453125 -20.858600616455078125 -20.8411102294921875 -20.785299301147460938 -20.785299301147460938 -20.763929367065429688 -20.72393035888671875 -20.670970916748046875 -20.63011932373046875 -20.63011932373046875 -20.612470626831054688 -20.602979660034179688 -20.583749771118164062 -20.557819366455078125 -20.557819366455078125 -20.537210464477539062 -20.538469314575195312 -20.51815032958984375 -20.549449920654296875 -20.549449920654296875 -20.568529129028320312 -20.573749542236328125 -20.535089492797851562 -20.497669219970703125 -20.497669219970703125 -20.471380233764648438 -20.456369400024414062 -20.428310394287109375 -20.388570785522460938 -20.388570785522460938 -20.368169784545898438 -20.351869583129882812 -20.340669631958007812 -20.307750701904296875 -20.307750701904296875 -20.304220199584960938 -20.287380218505859375 -20.2252197265625 -20.15724945068359375 -20.15724945068359375 -20.10919952392578125 -20.0316009521484375 -19.941270828247070312 -19.843320846557617188 -19.843320846557617188 -19.763139724731445312 -19.69976043701171875 -19.528749465942382812 -19.44512939453125
-20.161989212036132812 -20.081529617309570312 -20.002349853515625 -20.002349853515625 -19.944629669189453125 -19.874469757080078125 -19.81385040283203125 -19.698419570922851562 -19.698419570922851562 -19.596639633178710938 -19.5144195556640625 -19.413560867309570312 -19.300350189208984375 -19.300350189208984375 -19.199420928955078125 -19.107189178466796875 -19.0227508544921875 -18.915700912475585938 -18.915700912475585938 -18.821050643920898438 -18.731279373168945312 -18.65702056884765625 -18.615579605102539062 -18.615579605102539062 -18.60803985595703125 -18.705030441284179688 -19.030229568481445312 -19.38491058349609375 -19.38491058349609375 -19.640239715576171875 -19.705190658569335938 -19.709499359130859375 -19.69087982177734375 -19.69087982177734375 -19.648340225219726562 -19.53137969970703125 -19.5298309326171875 -19.52716064453125 -19.473180770874023438 -19.532979965209960938 -19.597890853881835938 -19.678140640258789062 -19.866100311279296875 -19.866100311279296875 -20.030139923095703125 -20.190399169921875 -20.275960922241210938 -20.311330795288085938 -20.311330795288085938 -20.3404693603515625 -20.36968994140625 -20.368549346923828125 -20.364849090576171875 -20.364849090576171875 -20.38520050048828125 -20.398820877075195312 -20.442590713500976562 -20.49694061279296875 -20.49694061279296875 -20.577619552612304688 -20.64617919921875 -20.713289260864257812 -20.771310806274414062 -20.818939208984375 -20.818939208984375 -20.875209808349609375 -20.951700210571289062 -21.003589630126953125 -21.10803985595703125 -21.10803985595703125 -21.137540817260742188 -21.178859710693359375 -21.203769683837890625 -21.220220565795898438 -21.220220565795898438 -21.200700759887695312 -21.18347930908203125 -21.175130844116210938 -21.137430191040039062 -21.137430191040039062 -21.108530044555664062 -21.065319061279296875 -21.004009246826171875 -21.00485992431640625 -21.00485992431640625 -20.991540908813476562 -20.979829788208007812 -20.944919586181640625 -20.919750213623046875 -20.919750213623046875 -20.92021942138671875 -20.925140380859375 -20.884180068969726562 -20.856060028076171875 -20.856060028076171875 -20.811250686645507812 -20.799709320068359375 -20.770639419555664062 -20.751249313354492188 -20.751249313354492188 -20.742420196533203125 -20.7255401611328125 -20.724660873413085938 -20.704370498657226562 -20.704370498657226562 -20.683359146118164062 -20.663389205932617188 -20.53784942626953125 -20.501699447631835938 -20.501699447631835938 -20.497640609741210938 -20.460939407348632812 -20.410810470581054688 -20.387020111083984375 -20.387020111083984375 -20.36952972412109375 -20.361499786376953125 -20.3381805419921875 -20.314329147338867188 -20.314329147338867188 -20.342479705810546875 -20.331689834594726562 -20.270040512084960938 -20.198049545288085938 -20.198049545288085938 -20.1134490966796875 -20.030590057373046875 -19.961820602416992188 -19.867229461669921875 -19.867229461669921875 -19.799739837646484375 -19.725740432739257812 -19.584629058837890625 -19.528369903564453125
-20.11978912353515625 -20.0550994873046875 -19.966680526733398438 -19.966680526733398438 -19.895549774169921875 -19.821199417114257812 -19.724760055541992188 -19.639049530029296875 -19.639049530029296875 -19.552579879760742188 -19.46331024169921875 -19.39971923828125 -19.308010101318359375 -19.308010101318359375 -19.199380874633789062 -19.090379714965820312 -18.986120223999023438 -18.906309127807617188 -18.906309127807617188 -18.801630020141601562 -18.70883941650390625 -18.595439910888671875 -18.495500564575195312 -18.495500564575195312 -18.439849853515625 -18.400730133056640625 -18.423309326171875 -18.639980316162109375 -18.639980316162109375 -19.138540267944335938 -19.548059463500976562 -19.7314300537109375 -19.775909423828125 -19.775909423828125 -19.755479812622070312 -19.614299774169921875 -19.599130630493164062 -19.622589111328125 -19.622589111328125 -19.579019546508789062 -19.57440948486328125 -19.649349212646484375 -19.71559906005859375 -19.814519882202148438 -19.814519882202148438 -19.959629058837890625 -20.089630126953125 -20.222410202026367188 -20.329839706420898438 -20.329839706420898438 -20.366559982299804688 -20.406610488891601562 -20.430929183959960938 -20.4365692138671875 -20.4365692138671875 -20.470279693603515625 -20.5421295166015625 -20.583700180053710938 -20.687269210815429688 -20.687269210815429688 -20.681610107421875 -20.736469268798828125 -20.815500259399414062 -20.87313079833984375 -20.87313079833984375 -20.917430877685546875 -21.016939163208007812 -21.067169189453125 -21.182249069213867188 -21.182249069213867188 -21.23361968994140625 -21.267940521240234375 -21.344160079956054688 -21.317920684814453125 -21.317920684814453125 -21.327419281005859375 -21.360439300537109375 -21.326059341430664062 -21.262269973754882812 -21.262269973754882812 -21.222629547119140625 -21.165679931640625 -21.085140228271484375 -21.083080291748046875 -21.083080291748046875 -21.041980743408203125 -21.029680252075195312 -20.97274017333984375 -20.945400238037109375 -20.945400238037109375 -20.907140731811523438 -20.88874053955078125 -20.874050140380859375 -20.872999191284179688 -20.872999191284179688 -20.824249267578125 -20.810779571533203125 -20.777099609375 -20.785390853881835938 -20.785390853881835938 -20.78900909423828125 -20.79290008544921875 -20.795690536499023438 -20.787809371948242188 -20.787809371948242188 -20.757909774780273438 -20.734600067138671875 -20.713079452514648438 -20.701629638671875 -20.701629638671875 -20.680299758911132812 -20.649789810180664062 -20.635229110717773438 -20.60121917724609375 -20.60121917724609375 -20.547550201416015625 -20.495569229125976562 -20.414659500122070312 -20.387180328369140625 -20.387180328369140625 -20.347320556640625 -20.270490646362304688 -20.238489151000976562 -20.190999984741210938 -20.190999984741210938 -20.110860824584960938 -20.038339614868164062 -20.028909683227539062 -19.988050460815429688 -19.951150894165039062 -19.884500503540039062 -19.785030364990234375 -19.668060302734375 -19.61425018310546875
-20.083810806274414062 -20.006610870361328125 -19.940799713134765625 -19.940799713134765625 -19.871900558471679688 -19.7921600341796875 -19.72949981689453125 -19.641820907592773438 -19.641820907592773438 -19.549030303955078125 -19.460050582885742188 -19.380750656127929688 -19.256839752197265625 -19.256839752197265625 -19.158229827880859375 -19.024610519409179688 -18.92086029052734375 -18.81465911865234375 -18.81465911865234375 -18.760240554809570312 -18.691949844360351562 -18.57266998291015625 -18.4678802490234375 -18.4678802490234375 -18.372629165649414062 -18.283750534057617188 -18.251920700073242188 -18.25016021728515625 -18.357049942016601562 -18.357049942016601562 -18.700420379638671875 -19.364810943603515625 -19.721889495849609375 -19.7933807373046875 -19.7933807373046875 -19.6671905517578125 -19.654600143432617188 -19.67353057861328125 -19.64617919921875 -19.64617919921875 -19.63690948486328125 -19.674879074096679688 -19.736690521240234375 -19.804630279541015625 -19.804630279541015625 -19.894029617309570312 -20.0398101806640625 -20.163059234619140625 -20.293170928955078125 -20.293170928955078125 -20.358930587768554688 -20.409679412841796875 -20.464120864868164062 -20.51226043701171875 -20.51226043701171875 -20.546680450439453125 -20.60681915283203125 -20.689380645751953125 -20.765829086303710938 -20.765829086303710938 -20.81719970703125 -20.886739730834960938 -20.950510025024414062 -21.016149520874023438 -21.016149520874023438 -21.042369842529296875 -21.092119216918945312 -21.14875030517578125 -21.204759597778320312 -21.204759597778320312 -21.301099777221679688 -21.36029052734375 -21.429380416870117188 -21.428640365600585938 -21.428640365600585938 -21.4412994384765625 -21.415729522705078125 -21.410650253295898438 -21.371110916137695312 -21.371110916137695312 -21.309339523315429688 -21.235559463500976562 -21.189220428466796875 -21.180379867553710938 -21.180379867553710938 -21.160600662231445312 -21.131450653076171875 -21.062379837036132812 -21.039289474487304688 -21.039289474487304688 -21.015310287475585938 -20.934690475463867188 -20.925729751586914062 -20.90760040283203125 -20.90760040283203125 -20.886220932006835938 -20.838819503784179688 -20.8110809326171875 -20.793699264526367188 -20.793699264526367188 -20.80258941650390625 -20.785280227661132812 -20.81295013427734375 -20.800210952758789062 -20.800210952758789062 -20.7927703857421875 -20.766420364379882812 -20.7549896240234375 -20.726430892944335938 -20.726430892944335938 -20.706010818481445312 -20.709079742431640625 -20.707559585571289062 -20.6937103271484375 -20.6937103271484375 -20.654920578002929688 -20.623960494995117188 -20.600620269775390625 -20.549230575561523438 -20.549230575561523438 -20.505670547485351562 -20.44879913330078125 -20.384790420532226562 -20.260850906372070312 -20.260850906372070312 -20.1613006591796875 -20.10124969482421875 -20.061290740966796875 -20.009979248046875 -20.009979248046875 -19.96147918701171875 -19.8476104736328125 -19.771820068359375 -19.726360321044921875
-20.067770004272460938 -19.956800460815429688 -19.896289825439453125 -19.896289825439453125 -19.818820953369140625 -19.7576904296875 -19.68936920166015625 -19.629619598388671875 -19.540760040283203125 -19.540760040283203125 -19.45680999755859375 -19.37284088134765625 -19.27117919921875 -19.15135955810546875 -19.15135955810546875 -19.048009872436523438 -18.924709320068359375 -18.800689697265625 -18.711839675903320312 -18.711839675903320312 -18.61370086669921875 -18.543409347534179688 -18.4637908935546875 -18.363800048828125 -18.363800048828125 -18.263690948486328125 -18.182050704956054688 -18.137950897216796875 -18.084880828857421875 -18.084880828857421875 -18.08612060546875 -18.142469406127929688 -18.309040069580078125 -19.583410263061523438 -19.583410263061523438 -19.694919586181640625 -19.78105926513671875 -19.7632598876953125 -19.712709426879882812 -19.712709426879882812 -19.673330307006835938 -19.7496795654296875 -19.786359786987304688 -19.852359771728515625 -19.852359771728515625 -19.92797088623046875 -20.044189453125 -20.172269821166992188 -20.292209625244140625 -20.292209625244140625 -20.383100509643554688 -20.455440521240234375 -20.517740249633789062 -20.581220626831054688 -20.581220626831054688 -20.622589111328125 -20.69705963134765625 -20.72956085205078125 -20.832780838012695312 -20.832780838012695312 -20.914220809936523438 -20.961299896240234375 -21.030530929565429688 -21.087099075317382812 -21.087099075317382812 -21.137220382690429688 -21.1955108642578125 -21.290739059448242188 -21.305700302124023438 -21.305700302124023438 -21.370660781860351562 -21.42108917236328125 -21.400339126586914062 -21.455190658569335938 -21.455190658569335938 -21.466640472412109375 -21.43412017822265625 -21.456110000610351562 -21.4289093017578125 -21.4289093017578125 -21.376239776611328125 -21.327859878540039062 -21.313199996948242188 -21.289400100708007812 -21.289400100708007812 -21.236400604248046875 -21.1977691650390625 -21.156429290771484375 -21.119670867919921875 -21.119670867919921875 -21.099569320678710938 -21.063440322875976562 -21.0327606201171875 -20.991870880126953125 -20.991870880126953125 -20.94696044921875 -20.9201202392578125 -20.882360458374023438 -20.858209609985351562 -20.858209609985351562 -20.860279083251953125 -20.847139358520507812 -20.879060745239257812 -20.827869415283203125 -20.827869415283203125 -20.822069168090820312 -20.800449371337890625 -20.785070419311523438 -20.773609161376953125 -20.773609161376953125 -20.759090423583984375 -20.733549118041992188 -20.707910537719726562 -20.683980941772460938 -20.683980941772460938 -20.689279556274414062 -20.662370681762695312 -20.6217803955078125 -20.602949142456054688 -20.602949142456054688 -20.570760726928710938 -20.51934051513671875 -20.455369949340820312 -20.403860092163085938 -20.403860092163085938 -20.335680007934570312 -20.253429412841796875 -20.192539215087890625 -20.125230789184570312 -20.125230789184570312 -20.034250259399414062 -19.87252044677734375 -19.822950363159179688 -19.793979644775390625
-20.08126068115234375 -19.992929458618164062 -19.89495086669921875 -19.819469451904296875 -19.819469451904296875 -19.753170013427734375 -19.671970367431640625 -19.607919692993164062 -19.5214691162109375 -19.5214691162109375 -19.431819915771484375 -19.359380722045898438 -19.247589111328125 -19.146270751953125 -19.146270751953125 -19.030759811401367188 -18.925500869750976562 -18.84098052978515625 -18.726390838623046875 -18.726390838623046875 -18.64849090576171875 -18.58206939697265625 -18.539350509643554688 -18.476329803466796875 -18.476329803466796875 -18.373170852661132812 -18.2951202392578125 -18.1989593505859375 -18.141820907592773438 -18.141820907592773438 -18.080780029296875 -18.050930023193359375 -18.051029205322265625 -18.157909393310546875 -18.157909393310546875 -18.4920806884765625 -19.152439117431640625 -19.625499725341796875 -19.761869430541992188 -19.761869430541992188 -19.77001953125 -19.8481903076171875 -19.851640701293945312 -19.89994049072265625 -19.89994049072265625 -19.954029083251953125 -20.017450332641601562 -20.113979339599609375 -20.227010726928710938 -20.227010726928710938 -20.337610244750976562 -20.466909408569335938 -20.605009078979492188 -20.716339111328125 -20.716339111328125 -20.723230361938476562 -20.807229995727539062 -20.86898040771484375 -20.9493408203125 -20.9493408203125 -20.998699188232421875 -21.080839157104492188 -21.148309707641601562 -21.189609527587890625 -21.189609527587890625 -21.233819961547851562 -21.259740829467773438 -21.342920303344726562 -21.38330078125 -21.38330078125 -21.439569473266601562 -21.48925018310546875 -21.506710052490234375 -21.4967803955078125 -21.4967803955078125 -21.517179489135742188 -21.523870468139648438 -21.502550125122070312 -21.453340530395507812 -21.453340530395507812 -21.405490875244140625 -21.372159957885742188 -21.313730239868164062 -21.290090560913085938 -21.290090560913085938 -21.247100830078125 -21.256269454956054688 -21.166900634765625 -21.1058502197265625 -21.1058502197265625 -21.05294036865234375 -21.034620285034179688 -20.9926300048828125 -20.966310501098632812 -20.966310501098632812 -20.9271392822265625 -20.922149658203125 -20.905279159545898438 -20.893129348754882812 -20.893129348754882812 -20.888990402221679688 -20.890979766845703125 -20.873899459838867188 -20.890710830688476562 -20.890710830688476562 -20.916439056396484375 -20.922519683837890625 -20.896589279174804688 -20.87989044189453125 -20.87989044189453125 -20.8525390625 -20.82958984375 -20.805789947509765625 -20.740610122680664062 -20.740610122680664062 -20.705820083618164062 -20.660299301147460938 -20.625200271606445312 -20.575550079345703125 -20.575550079345703125 -20.5589599609375 -20.547000885009765625 -20.494649887084960938 -20.432970046997070312 -20.432970046997070312 -20.367229461669921875 -20.318250656127929688 -20.270769119262695312 -20.20568084716796875 -20.20568084716796875 -20.126329421997070312 -19.920490264892578125 -19.910940170288085938 -19.880899429321289062
-20.046079635620117188 -19.9590606689453125 -19.88607025146484375 -19.8375701904296875 -19.8375701904296875 -19.757829666137695312 -19.702379226684570312 -19.64965057373046875 -19.565679550170898438 -19.565679550170898438 -19.476709365844726562 -19.39752960205078125 -19.28823089599609375 -19.186420440673828125 -19.186420440673828125 -19.093820571899414062 -18.978490829467773438 -18.868579864501953125 -18.758050918579101562 -18.758050918579101562 -18.665330886840820312 -18.606830596923828125 -18.5438995361328125 -18.493730545043945312 -18.493730545043945312 -18.426630020141601562 -18.345119476318359375 -18.282009124755859375 -18.210359573364257812 -18.210359573364257812 -18.135370254516601562 -18.0680694580078125 -18.040340423583984375 -18.065999984741210938 -18.065999984741210938 -18.192169189453125 -18.527959823608398438 -19.100339889526367188 -19.58428955078125 -19.58428955078125 -19.773550033569335938 -19.839599609375 -19.8481597900390625 -19.894800186157226562 -19.894800186157226562 -19.929029464721679688 -19.983999252319335938 -20.053699493408203125 -20.141490936279296875 -20.141490936279296875 -20.275829315185546875 -20.416360855102539062 -20.581560134887695312 -20.7095794677734375 -20.7095794677734375 -20.841510772705078125 -20.942150115966796875 -21.03730010986328125 -21.138690948486328125 -21.138690948486328125 -21.24011993408203125 -21.336610794067382812 -21.409109115600585938 -21.452070236206054688 -21.452070236206054688 -21.485300064086914062 -21.526119232177734375 -21.555650711059570312 -21.568780899047851562 -21.568780899047851562 -21.543340682983398438 -21.572040557861328125 -21.5972900390625 -21.605279922485351562 -21.605279922485351562 -21.608999252319335938 -21.581050872802734375 -21.573009490966796875 -21.532209396362304688 -21.532209396362304688 -21.49687957763671875 -21.415500640869140625 -21.384229660034179688 -21.3670501708984375 -21.3670501708984375 -21.302270889282226562 -21.21929931640625 -21.189409255981445312 -21.12554931640625 -21.12554931640625 -21.07093048095703125 -21.029050827026367188 -20.992059707641601562 -20.94532012939453125 -20.94532012939453125 -20.910139083862304688 -20.876750946044921875 -20.86103057861328125 -20.843809127807617188 -20.843809127807617188 -20.83245086669921875 -20.842670440673828125 -20.86074066162109375 -20.873020172119140625 -20.873020172119140625 -20.889329910278320312 -20.889400482177734375 -20.884380340576171875 -20.884990692138671875 -20.884990692138671875 -20.885009765625 -20.847269058227539062 -20.855600357055664062 -20.822050094604492188 -20.822050094604492188 -20.767499923706054688 -20.710849761962890625 -20.68582916259765625 -20.641370773315429688 -20.641370773315429688 -20.605930328369140625 -20.55381011962890625 -20.514139175415039062 -20.461290359497070312 -20.461290359497070312 -20.4227294921875 -20.352230072021484375 -20.30496978759765625 -20.254629135131835938 -20.163030624389648438 -20.163030624389648438 -20.103990554809570312 -20.079509735107421875 -20.053739547729492188
-20.000949859619140625 -19.929929733276367188 -19.855939865112304688 -19.753850936889648438 -19.753850936889648438 -19.71443939208984375 -19.67700958251953125 -19.595920562744140625 -19.5362701416015625 -19.5362701416015625 -19.4719390869140625 -19.428010940551757812 -19.3582305908203125 -19.277200698852539062 -19.277200698852539062 -19.198520660400390625 -19.09033966064453125 -18.990129470825195312 -18.905729293823242188 -18.905729293823242188 -18.851869583129882812 -18.76715087890625 -18.669269561767578125 -18.624589920043945312 -18.624589920043945312 -18.573919296264648438 -18.495470046997070312 -18.418430328369140625 -18.33831024169921875 -18.255319595336914062 -18.177659988403320312 -18.122020721435546875 -18.081029891967773438 -18.048139572143554688 -18.048139572143554688 -18.08428955078125 -18.246549606323242188 -18.611829757690429688 -19.133069992065429688 -19.133069992065429688 -19.56034088134765625 -19.792280197143554688 -19.87133026123046875 -19.901899337768554688 -19.901899337768554688 -19.937549591064453125 -19.958360671997070312 -20.02725982666015625 -20.113569259643554688 -20.113569259643554688 -20.228059768676757812 -20.382839202880859375 -20.509840011596679688 -20.62200927734375 -20.62200927734375 -20.74861907958984375 -20.882539749145507812 -21.02819061279296875 -21.157470703125 -21.157470703125 -21.255580902099609375 -21.378259658813476562 -21.47882080078125 -21.538249969482421875 -21.538249969482421875 -21.578069686889648438 -21.592199325561523438 -21.649730682373046875 -21.657480239868164062 -21.657480239868164062 -21.6385498046875 -21.655389785766601562 -21.674650192260742188 -21.685779571533203125 -21.685779571533203125 -21.672700881958007812 -21.635400772094726562 -21.671079635620117188 -21.653659820556640625 -21.653659820556640625 -21.6294403076171875 -21.5397796630859375 -21.479810714721679688 -21.432020187377929688 -21.432020187377929688 -21.316930770874023438 -21.289339065551757812 -21.222980499267578125 -21.1453094482421875 -21.1453094482421875 -21.089769363403320312 -21.025360107421875 -20.99102020263671875 -20.980939865112304688 -20.980939865112304688 -20.925359725952148438 -20.882009506225585938 -20.868219375610351562 -20.859979629516601562 -20.861009597778320312 -20.836500167846679688 -20.816619873046875 -20.845869064331054688 -20.851640701293945312 -20.851640701293945312 -20.8193206787109375 -20.800050735473632812 -20.77021026611328125 -20.777360916137695312 -20.817880630493164062 -20.817880630493164062 -20.830280303955078125 -20.814260482788085938 -20.7930908203125 -20.780439376831054688 -20.780439376831054688 -20.769840240478515625 -20.736810684204101562 -20.699960708618164062 -20.690389633178710938 -20.690389633178710938 -20.626459121704101562 -20.568439483642578125 -20.512569427490234375 -20.4567108154296875 -20.4567108154296875 -20.429449081420898438 -20.39311981201171875 -20.355550765991210938 -20.216480255126953125 -20.216480255126953125 -20.177469253540039062 -20.189899444580078125 -20.164880752563476562
-19.974079132080078125 -19.908739089965820312 -19.856960296630859375 -19.82270050048828125 -19.82270050048828125 -19.787809371948242188 -19.726209640502929688 -19.652370452880859375 -19.59626007080078125 -19.59626007080078125 -19.56781005859375 -19.458770751953125 -19.334459304809570312 -19.255029678344726562 -19.255029678344726562 -19.190950393676757812 -19.098619461059570312 -19.005010604858398438 -18.920230865478515625 -18.920230865478515625 -18.867639541625976562 -18.786920547485351562 -18.710109710693359375 -18.643039703369140625 -18.643039703369140625 -18.58782958984375 -18.535249710083007812 -18.489259719848632812 -18.418790817260742188 -18.418790817260742188 -18.359720230102539062 -18.295589447021484375 -18.24346923828125 -18.170099258422851562 -18.170099258422851562 -18.14640045166015625 -18.146169662475585938 -18.171239852905273438 -18.35382080078125 -18.35382080078125 -18.757440567016601562 -19.276910781860351562 -19.680980682373046875 -19.87989044189453125 -19.87989044189453125 -19.973049163818359375 -20.055089950561523438 -20.11029052734375 -20.187070846557617188 -20.187070846557617188 -20.2821502685546875 -20.365179061889648438 -20.471099853515625 -20.595539093017578125 -20.595539093017578125 -20.746690750122070312 -20.859630584716796875 -21.000669479370117188 -21.131750106811523438 -21.131750106811523438 -21.2497406005859375 -21.361349105834960938 -21.438030242919921875 -21.511579513549804688 -21.511579513549804688 -21.578470230102539062 -21.665250778198242188 -21.681299209594726562 -21.698520660400390625 -21.698520660400390625 -21.736400604248046875 -21.748239517211914062 -21.749170303344726562 -21.74449920654296875 -21.74449920654296875 -21.753839492797851562 -21.757570266723632812 -21.70050048828125 -21.715250015258789062 -21.715250015258789062 -21.652929306030273438 -21.635549545288085938 -21.509899139404296875 -21.479299545288085938 -21.479299545288085938 -21.4159698486328125 -21.34259033203125 -21.258609771728515625 -21.184400558471679688 -21.098260879516601562 -21.098260879516601562 -21.043020248413085938 -20.96920013427734375 -20.96714019775390625 -20.9596099853515625 -20.9596099853515625 -20.911590576171875 -20.87046051025390625 -20.841390609741210938 -20.8227691650390625 -20.8227691650390625 -20.78675079345703125 -20.76129913330078125 -20.757740020751953125 -20.728189468383789062 -20.728189468383789062 -20.731840133666992188 -20.743219375610351562 -20.741579055786132812 -20.738529205322265625 -20.738529205322265625 -20.731229782104492188 -20.73477935791015625 -20.716699600219726562 -20.700450897216796875 -20.700450897216796875 -20.70928955078125 -20.67884063720703125 -20.636510848999023438 -20.621799468994140625 -20.621799468994140625 -20.656629562377929688 -20.59059906005859375 -20.56388092041015625 -20.509250640869140625 -20.509250640869140625 -20.495960235595703125 -20.487209320068359375 -20.452409744262695312 -20.278400421142578125 -20.278400421142578125 -20.248500823974609375 -20.2550506591796875 -20.2285308837890625
-19.953809738159179688 -19.895740509033203125 -19.844839096069335938 -19.815069198608398438 -19.815069198608398438 -19.772550582885742188 -19.716150283813476562 -19.654209136962890625 -19.5951995849609375 -19.5951995849609375 -19.540119171142578125 -19.489789962768554688 -19.436710357666015625 -19.400920867919921875 -19.400920867919921875 -19.3504791259765625 -19.254800796508789062 -19.247880935668945312 -19.258769989013671875 -19.258769989013671875 -18.841970443725585938 -18.778249740600585938 -18.683820724487304688 -18.6234893798828125 -18.6234893798828125 -18.566179275512695312 -18.530300140380859375 -18.4967193603515625 -18.45922088623046875 -18.45922088623046875 -18.39672088623046875 -18.354169845581054688 -18.294900894165039062 -18.230350494384765625 -18.230350494384765625 -18.219930648803710938 -18.203899383544921875 -18.211620330810546875 -18.2944793701171875 -18.2944793701171875 -18.53163909912109375 -18.916820526123046875 -19.418439865112304688 -19.773189544677734375 -19.773189544677734375 -19.978000640869140625 -20.072710037231445312 -20.162530899047851562 -20.2255706787109375 -20.2255706787109375 -20.313669204711914062 -20.427690505981445312 -20.561809539794921875 -20.702299118041992188 -20.702299118041992188 -20.834829330444335938 -20.96929931640625 -21.093540191650390625 -21.180889129638671875 -21.180889129638671875 -21.282649993896484375 -21.386270523071289062 -21.474660873413085938 -21.54734039306640625 -21.54734039306640625 -21.653720855712890625 -21.708520889282226562 -21.774229049682617188 -21.798120498657226562 -21.798120498657226562 -21.8516693115234375 -21.868379592895507812 -21.869020462036132812 -21.777730941772460938 -21.795040130615234375 -21.795040130615234375 -21.798730850219726562 -21.74694061279296875 -21.765390396118164062 -21.743539810180664062 -21.743539810180664062 -21.650880813598632812 -21.612119674682617188 -21.548429489135742188 -21.436830520629882812 -21.436830520629882812 -21.3499603271484375 -21.285280227661132812 -21.215570449829101562 -21.125440597534179688 -21.125440597534179688 -21.090120315551757812 -21.045749664306640625 -20.985570907592773438 -20.95832061767578125 -20.95832061767578125 -20.93975067138671875 -20.899200439453125 -20.866910934448242188 -20.836309432983398438 -20.836309432983398438 -20.813039779663085938 -20.779199600219726562 -20.752130508422851562 -20.727750778198242188 -20.727750778198242188 -20.745000839233398438 -20.749689102172851562 -20.756620407104492188 -20.770959854125976562 -20.770959854125976562 -20.765439987182617188 -20.777509689331054688 -20.7768096923828125 -20.729480743408203125 -20.729480743408203125 -20.694610595703125 -20.673330307006835938 -20.64900970458984375 -20.581989288330078125 -20.581989288330078125 -20.542020797729492188 -20.547740936279296875 -20.573089599609375 -20.577749252319335938 -20.577749252319335938 -20.543390274047851562 -20.512750625610351562 -20.48387908935546875 -20.400869369506835938 -20.400869369506835938 -20.448490142822265625 -20.430309295654296875 -20.358350753784179688
-19.92346954345703125 -19.867900848388671875 -19.82559967041015625 -19.849920272827148438 -19.849920272827148438 -19.761510848999023438 -19.699939727783203125 -19.639989852905273438 -19.583440780639648438 -19.583440780639648438 -19.53115081787109375 -19.483119964599609375 -19.433620452880859375 -19.38990020751953125 -19.38990020751953125 -19.33982086181640625 -19.287830352783203125 -19.242700576782226562 -19.194919586181640625 -19.194919586181640625 -19.14080047607421875 -19.080789566040039062 -19.016199111938476562 -18.94647979736328125 -18.94647979736328125 -18.831979751586914062 -18.525640487670898438 -18.501220703125 -18.454000473022460938 -18.454000473022460938 -18.427640914916992188 -18.362209320068359375 -18.333570480346679688 -18.278249740600585938 -18.278249740600585938 -18.265840530395507812 -18.24098968505859375 -18.2161102294921875 -18.285150527954101562 -18.285150527954101562 -18.434030532836914062 -18.691019058227539062 -19.099840164184570312 -19.5769195556640625 -19.5769195556640625 -19.937389373779296875 -20.145799636840820312 -20.2661895751953125 -20.326030731201171875 -20.326030731201171875 -20.421329498291015625 -20.514469146728515625 -20.614990234375 -20.7462005615234375 -20.868040084838867188 -20.868040084838867188 -21.013690948486328125 -21.1370697021484375 -21.259889602661132812 -21.363880157470703125 -21.363880157470703125 -21.49803924560546875 -21.588289260864257812 -21.679540634155273438 -21.753179550170898438 -21.753179550170898438 -21.79833984375 -21.82939910888671875 -21.876070022583007812 -21.900159835815429688 -21.900159835815429688 -21.92694091796875 -21.91313934326171875 -21.918809890747070312 -21.912500381469726562 -21.912500381469726562 -21.877780914306640625 -21.821819305419921875 -21.78173065185546875 -21.721920013427734375 -21.721920013427734375 -21.63195037841796875 -21.62570953369140625 -21.516950607299804688 -21.44535064697265625 -21.44535064697265625 -21.362789154052734375 -21.267999649047851562 -21.201190948486328125 -21.1765594482421875 -21.1765594482421875 -21.0817108154296875 -21.061800003051757812 -21.016839981079101562 -20.997430801391601562 -20.989679336547851562 -20.952749252319335938 -20.9395294189453125 -20.9247894287109375 -20.899629592895507812 -20.899629592895507812 -20.86006927490234375 -20.797239303588867188 -20.772470474243164062 -20.753810882568359375 -20.753810882568359375 -20.743879318237304688 -20.755430221557617188 -20.787450790405273438 -20.811750411987304688 -20.811750411987304688 -20.827489852905273438 -20.827899932861328125 -20.810670852661132812 -20.782739639282226562 -20.782739639282226562 -20.766820907592773438 -20.728410720825195312 -20.697710037231445312 -20.644420623779296875 -20.644420623779296875 -20.62635040283203125 -20.596090316772460938 -20.572259902954101562 -20.579059600830078125 -20.579059600830078125 -20.583160400390625 -20.569580078125 -20.551509857177734375 -20.4926605224609375 -20.4926605224609375 -20.501699447631835938 -20.433069229125976562 -20.387920379638671875
-19.926649093627929688 -19.877199172973632812 -19.846540451049804688 -19.789930343627929688 -19.789930343627929688 -19.761209487915039062 -19.7290496826171875 -19.654630661010742188 -19.565309524536132812 -19.565309524536132812 -19.520700454711914062 -19.469930648803710938 -19.432569503784179688 -19.385950088500976562 -19.385950088500976562 -19.33415985107421875 -19.280719757080078125 -19.2455291748046875 -19.19512939453125 -19.19512939453125 -19.140909194946289062 -19.078870773315429688 -19.013240814208984375 -18.940219879150390625 -18.940219879150390625 -18.871290206909179688 -18.813989639282226562 -18.77490997314453125 -18.752010345458984375 -18.752010345458984375 -18.728359222412109375 -18.698759078979492188 -18.663339614868164062 -18.630090713500976562 -18.630090713500976562 -18.595079421997070312 -18.567180633544921875 -18.584569931030273438 -18.605770111083984375 -18.593690872192382812 -18.593690872192382812 -18.36907958984375 -18.597520828247070312 -19.030660629272460938 -19.524839401245117188 -19.524839401245117188 -19.973810195922851562 -20.318939208984375 -20.408580780029296875 -20.523660659790039062 -20.523660659790039062 -20.625759124755859375 -20.728549957275390625 -20.855360031127929688 -20.974420547485351562 -20.974420547485351562 -21.080629348754882812 -21.206630706787109375 -21.354940414428710938 -21.4608001708984375 -21.4608001708984375 -21.58383941650390625 -21.674289703369140625 -21.733640670776367188 -21.800859451293945312 -21.800859451293945312 -21.88867950439453125 -21.916570663452148438 -21.95269012451171875 -21.990240097045898438 -21.990240097045898438 -22.000860214233398438 -22.0179595947265625 -21.996639251708984375 -21.973520278930664062 -21.973520278930664062 -21.9442596435546875 -21.89611053466796875 -21.824899673461914062 -21.769239425659179688 -21.769239425659179688 -21.686269760131835938 -21.66323089599609375 -21.522289276123046875 -21.467859268188476562 -21.467859268188476562 -21.371999740600585938 -21.250579833984375 -21.194139480590820312 -21.108280181884765625 -21.108280181884765625 -21.056690216064453125 -20.983999252319335938 -20.9519195556640625 -20.965070724487304688 -20.965070724487304688 -20.950960159301757812 -20.901639938354492188 -20.870880126953125 -20.85327911376953125 -20.85327911376953125 -20.8558807373046875 -20.85569000244140625 -20.845439910888671875 -20.847789764404296875 -20.847789764404296875 -20.845849990844726562 -20.848560333251953125 -20.8617095947265625 -20.894800186157226562 -20.894800186157226562 -20.894319534301757812 -20.912670135498046875 -20.897550582885742188 -20.882160186767578125 -20.882160186767578125 -20.78955078125 -20.774120330810546875 -20.77848052978515625 -20.747699737548828125 -20.747699737548828125 -20.726329803466796875 -20.735570907592773438 -20.709989547729492188 -20.660619735717773438 -20.660619735717773438 -20.694469451904296875 -20.683599472045898438 -20.590480804443359375 -20.52873992919921875 -20.52873992919921875 -20.4979400634765625 -20.439329147338867188 -20.382740020751953125
-19.964960098266601562 -19.900579452514648438 -19.8605499267578125 -19.804040908813476562 -19.804040908813476562 -19.760860443115234375 -19.725969314575195312 -19.655269622802734375 -19.613759994506835938 -19.613759994506835938 -19.541929244995117188 -19.492879867553710938 -19.440309524536132812 -19.376039505004882812 -19.376039505004882812 -19.340459823608398438 -19.26194000244140625 -19.247739791870117188 -19.181850433349609375 -19.139810562133789062 -19.139810562133789062 -19.07196044921875 -19.010919570922851562 -18.92993927001953125 -18.867450714111328125 -18.867450714111328125 -18.813810348510742188 -18.780080795288085938 -18.760770797729492188 -18.733850479125976562 -18.733850479125976562 -18.702859878540039062 -18.665790557861328125 -18.6317901611328125 -18.600139617919921875 -18.600139617919921875 -18.578039169311523438 -18.571460723876953125 -18.571300506591796875 -18.566450119018554688 -18.566450119018554688 -18.556009292602539062 -18.55258941650390625 -18.55821990966796875 -18.59120941162109375 -18.59120941162109375 -18.705099105834960938 -18.883459091186523438 -20.435869216918945312 -20.627229690551757812 -20.627229690551757812 -20.767210006713867188 -20.857919692993164062 -20.991769790649414062 -21.127740859985351562 -21.127740859985351562 -21.248910903930664062 -21.38816070556640625 -21.526279449462890625 -21.642320632934570312 -21.642320632934570312 -21.77400970458984375 -21.885250091552734375 -21.96636962890625 -22.046079635620117188 -22.046079635620117188 -22.086099624633789062 -22.11898040771484375 -22.137340545654296875 -22.018550872802734375 -22.018550872802734375 -22.022520065307617188 -22.037939071655273438 -22.03878021240234375 -22.010160446166992188 -22.010160446166992188 -21.979480743408203125 -21.926959991455078125 -21.885929107666015625 -21.875530242919921875 -21.875530242919921875 -21.758989334106445312 -21.685560226440429688 -21.564020156860351562 -21.474889755249023438 -21.474889755249023438 -21.367330551147460938 -21.298650741577148438 -21.131780624389648438 -21.057550430297851562 -21.057550430297851562 -21.023149490356445312 -20.977560043334960938 -20.935049057006835938 -20.908609390258789062 -20.908609390258789062 -20.89553070068359375 -20.894300460815429688 -20.86251068115234375 -20.843019485473632812 -20.843019485473632812 -20.832820892333984375 -20.838939666748046875 -20.843250274658203125 -20.852430343627929688 -20.852430343627929688 -20.869359970092773438 -20.88993072509765625 -20.908519744873046875 -20.90814971923828125 -20.90814971923828125 -20.926540374755859375 -20.930669784545898438 -20.909959793090820312 -20.905040740966796875 -20.905040740966796875 -20.895109176635742188 -20.889310836791992188 -20.876760482788085938 -20.887529373168945312 -20.887529373168945312 -20.900409698486328125 -20.879949569702148438 -20.847009658813476562 -20.839139938354492188 -20.839139938354492188 -20.806329727172851562 -20.7579803466796875 -20.639789581298828125 -20.616729736328125 -20.616729736328125 -20.576440811157226562 -20.525150299072265625 -20.4404296875
-19.793649673461914062 -19.887300491333007812 -19.88935089111328125 -19.857019424438476562 -19.821760177612304688 -19.821760177612304688 -19.761129379272460938 -19.724199295043945312 -19.65818023681640625 -19.653720855712890625 -19.653720855712890625 -19.576190948486328125 -19.510400772094726562 -19.490009307861328125 -19.46183013916015625 -19.46183013916015625 -19.421649932861328125 -19.398420333862304688 -19.298089981079101562 -19.204029083251953125 -19.177240371704101562 -19.078609466552734375 -18.997669219970703125 -18.887699127197265625 -18.861909866333007812 -18.861909866333007812 -18.781879425048828125 -18.765649795532226562 -18.763429641723632812 -18.733489990234375 -18.733489990234375 -18.703130722045898438 -18.666360855102539062 -18.635129928588867188 -18.6064605712890625 -18.6064605712890625 -18.587900161743164062 -18.583810806274414062 -18.57891082763671875 -18.574220657348632812 -18.574220657348632812 -18.56851959228515625 -18.566019058227539062 -18.574289321899414062 -18.615179061889648438 -18.615179061889648438 -18.717390060424804688 -18.90637969970703125 -19.226270675659179688 -19.719919204711914062 -19.719919204711914062 -20.338979721069335938 -20.86949920654296875 -21.17407989501953125 -21.445940017700195312 -21.445940017700195312 -21.3457794189453125 -21.500240325927734375 -21.644910812377929688 -21.72650909423828125 -21.72650909423828125 -21.841810226440429688 -21.922760009765625 -22.037549972534179688 -22.124879837036132812 -22.124879837036132812 -22.202409744262695312 -22.239740371704101562 -22.262960433959960938 -22.256040573120117188 -22.256040573120117188 -22.23114013671875 -22.209360122680664062 -22.1760101318359375 -22.121160507202148438 -22.121160507202148438 -22.062290191650390625 -22.020120620727539062 -21.94477081298828125 -21.877939224243164062 -21.877939224243164062 -21.780490875244140625 -21.685939788818359375 -21.592739105224609375 -21.491180419921875 -21.491180419921875 -21.333019256591796875 -21.24066925048828125 -21.1635894775390625 -21.0492401123046875 -21.0492401123046875 -20.988119125366210938 -20.936380386352539062 -20.90760040283203125 -20.874759674072265625 -20.874759674072265625 -20.872650146484375 -20.905300140380859375 -20.891300201416015625 -20.863969802856445312 -20.863969802856445312 -20.861330032348632812 -20.85845947265625 -20.872089385986328125 -20.842990875244140625 -20.842990875244140625 -20.838680267333984375 -20.86631011962890625 -20.898250579833984375 -20.88658905029296875 -20.88658905029296875 -20.905590057373046875 -20.9154205322265625 -20.923990249633789062 -20.937990188598632812 -20.937990188598632812 -20.946620941162109375 -20.940370559692382812 -20.931890487670898438 -20.924129486083984375 -20.924129486083984375 -20.944990158081054688 -20.944910049438476562 -20.92993927001953125 -20.920709609985351562 -20.920709609985351562 -20.906949996948242188 -20.82910919189453125 -20.64810943603515625 -20.603380203247070312 -20.603380203247070312 -20.56002044677734375 -20.479740142822265625 -20.4319000244140625
-19.194860458374023438 -19.374559402465820312 -19.601030349731445312 -19.791259765625 -19.815160751342773438 -19.815160751342773438 -19.798189163208007812 -19.759159088134765625 -19.7450408935546875 -19.671369552612304688 -19.671369552612304688 -19.62364959716796875 -19.56620025634765625 -19.514949798583984375 -19.483020782470703125 -19.483020782470703125 -19.467189788818359375 -19.427829742431640625 -19.32859039306640625 -19.30413055419921875 -19.30413055419921875 -19.19271087646484375 -19.1076507568359375 -19.038820266723632812 -18.969789505004882812 -18.969789505004882812 -18.9112701416015625 -18.909189224243164062 -18.846250534057617188 -18.8001708984375 -18.8001708984375 -18.730619430541992188 -18.6842498779296875 -18.675960540771484375 -18.649410247802734375 -18.649410247802734375 -18.599700927734375 -18.583589553833007812 -18.545419692993164062 -18.576959609985351562 -18.576959609985351562 -18.560720443725585938 -18.573129653930664062 -18.588609695434570312 -18.638910293579101562 -18.638910293579101562 -18.750270843505859375 -18.955080032348632812 -19.2986297607421875 -19.7957000732421875 -19.7957000732421875 -20.369770050048828125 -20.856119155883789062 -21.19622039794921875 -21.451749801635742188 -21.451749801635742188 -21.674200057983398438 -21.859109878540039062 -21.984279632568359375 -22.05998992919921875 -22.05998992919921875 -22.220029830932617188 -22.363969802856445312 -22.022380828857421875 -22.13105010986328125 -22.13105010986328125 -22.201429367065429688 -22.2355499267578125 -22.286869049072265625 -22.295259475708007812 -22.295259475708007812 -22.302339553833007812 -22.259670257568359375 -22.271139144897460938 -22.20800018310546875 -22.20800018310546875 -22.164339065551757812 -22.091409683227539062 -22.005880355834960938 -21.914730072021484375 -21.914730072021484375 -21.8233795166015625 -21.733140945434570312 -21.631959915161132812 -21.51342010498046875 -21.51342010498046875 -21.404649734497070312 -21.296329498291015625 -21.132829666137695312 -21.0415802001953125 -21.0415802001953125 -20.980960845947265625 -20.921169281005859375 -20.882230758666992188 -20.88719940185546875 -20.88719940185546875 -20.86846923828125 -20.86396026611328125 -20.87361907958984375 -20.88188934326171875 -20.88188934326171875 -20.8788299560546875 -20.878040313720703125 -20.869480133056640625 -20.867420196533203125 -20.867420196533203125 -20.859699249267578125 -20.88909912109375 -20.90811920166015625 -20.922330856323242188 -20.922330856323242188 -20.9448699951171875 -20.931959152221679688 -20.93202972412109375 -20.936029434204101562 -20.936029434204101562 -20.945089340209960938 -20.942180633544921875 -20.968479156494140625 -20.982330322265625 -20.982330322265625 -20.988260269165039062 -20.966609954833984375 -20.960180282592773438 -20.959779739379882812 -20.959779739379882812 -20.919019699096679688 -20.810520172119140625 -20.629299163818359375 -20.59658050537109375 -20.59658050537109375 -20.5428009033203125 -20.44403076171875 -20.391469955444335938
-18.922809600830078125 -18.923540115356445312 -18.989810943603515625 -19.194459915161132812 -19.49430084228515625 -19.49430084228515625 -19.674160003662109375 -19.748079299926757812 -19.759130477905273438 -19.710290908813476562 -19.710290908813476562 -19.637689590454101562 -19.599489212036132812 -19.545320510864257812 -19.529340744018554688 -19.529340744018554688 -19.511289596557617188 -19.478300094604492188 -19.412919998168945312 -19.322530746459960938 -19.322530746459960938 -19.241420745849609375 -19.158250808715820312 -19.076869964599609375 -19.006000518798828125 -19.006000518798828125 -18.975320816040039062 -18.964300155639648438 -18.881420135498046875 -18.84951019287109375 -18.84951019287109375 -18.838190078735351562 -18.773839950561523438 -18.72071075439453125 -18.70751953125 -18.70751953125 -18.682949066162109375 -18.66783905029296875 -18.609769821166992188 -18.638120651245117188 -18.638120651245117188 -18.63629913330078125 -18.634990692138671875 -18.579259872436523438 -18.6494293212890625 -18.6494293212890625 -18.746860504150390625 -18.972360610961914062 -19.396589279174804688 -19.961809158325195312 -19.961809158325195312 -20.510150909423828125 -20.95281982421875 -21.278650283813476562 -21.52664947509765625 -21.52664947509765625 -21.737850189208984375 -21.909900665283203125 -22.04383087158203125 -22.164659500122070312 -22.164659500122070312 -22.280849456787109375 -22.377529144287109375 -22.454790115356445312 -22.486530303955078125 -22.486530303955078125 -22.54943084716796875 -22.653169631958007812 -22.707180023193359375 -22.767780303955078125 -22.767780303955078125 -22.316240310668945312 -22.31063079833984375 -22.282619476318359375 -22.246030807495117188 -22.246030807495117188 -22.201679229736328125 -22.150600433349609375 -22.052030563354492188 -21.901620864868164062 -21.901620864868164062 -21.860349655151367188 -21.7414398193359375 -21.662649154663085938 -21.568569183349609375 -21.568569183349609375 -21.48284912109375 -21.357419967651367188 -21.23947906494140625 -21.094060897827148438 -21.094060897827148438 -21.002719879150390625 -20.926099777221679688 -20.865339279174804688 -20.861509323120117188 -20.861509323120117188 -20.81707000732421875 -20.812669754028320312 -20.815290451049804688 -20.818380355834960938 -20.818380355834960938 -20.800859451293945312 -20.813840866088867188 -20.817689895629882812 -20.8334808349609375 -20.8334808349609375 -20.838029861450195312 -20.8511505126953125 -20.905260086059570312 -20.921220779418945312 -20.921220779418945312 -20.951219558715820312 -20.919820785522460938 -20.904979705810546875 -20.908800125122070312 -20.9248504638671875 -20.9248504638671875 -20.92462921142578125 -20.9319305419921875 -20.9384002685546875 -20.981710433959960938 -20.981710433959960938 -20.976459503173828125 -20.974199295043945312 -20.949590682983398438 -20.914890289306640625 -20.914890289306640625 -20.778150558471679688 -20.6660003662109375 -20.605260848999023438 -20.552530288696289062 -20.552530288696289062 -20.465610504150390625 -20.422779083251953125
-18.697500228881835938 -18.622270584106445312 -18.427179336547851562 -18.373760223388671875 -18.2950592041015625 -18.2950592041015625 -18.22248077392578125 -18.311349868774414062 -18.706949234008789062 -19.235759735107421875 -19.235759735107421875 -19.58769989013671875 -19.717340469360351562 -19.7243804931640625 -19.67256927490234375 -19.67256927490234375 -19.541410446166992188 -19.502880096435546875 -19.434940338134765625 -19.391130447387695312 -19.391130447387695312 -19.26239013671875 -19.23101043701171875 -19.1582794189453125 -19.08245086669921875 -19.08245086669921875 -19.077180862426757812 -19.005540847778320312 -18.96530914306640625 -18.901140213012695312 -18.901140213012695312 -18.888469696044921875 -18.833709716796875 -18.774759292602539062 -18.770479202270507812 -18.770479202270507812 -18.774990081787109375 -18.740419387817382812 -18.723720550537109375 -18.640520095825195312 -18.640520095825195312 -18.658670425415039062 -18.662820816040039062 -18.635110855102539062 -18.710020065307617188 -18.710020065307617188 -18.765619277954101562 -18.944059371948242188 -19.31674957275390625 -19.961399078369140625 -19.961399078369140625 -20.63636016845703125 -21.040689468383789062 -21.343179702758789062 -21.536380767822265625 -21.536380767822265625 -21.808450698852539062 -21.951639175415039062 -22.062129974365234375 -22.1868896484375 -22.1868896484375 -22.309240341186523438 -22.402189254760742188 -22.479549407958984375 -22.540590286254882812 -22.540590286254882812 -22.600019454956054688 -22.647680282592773438 -22.667619705200195312 -22.660009384155273438 -22.660009384155273438 -22.638240814208984375 -22.607219696044921875 -22.564159393310546875 -22.505559921264648438 -22.505559921264648438 -22.43582916259765625 -22.358400344848632812 -22.267879486083984375 -22.163990020751953125 -22.163990020751953125 -22.013589859008789062 -21.83914947509765625 -21.728929519653320312 -21.571010589599609375 -21.571010589599609375 -21.462310791015625 -21.31092071533203125 -21.211999893188476562 -21.100610733032226562 -21.100610733032226562 -21.027120590209960938 -20.96237945556640625 -20.916849136352539062 -20.8575897216796875 -20.8575897216796875 -20.821929931640625 -20.797119140625 -20.79940032958984375 -20.794940948486328125 -20.806669235229492188 -20.806669235229492188 -20.812059402465820312 -20.795579910278320312 -20.810739517211914062 -20.818109512329101562 -20.818109512329101562 -20.845180511474609375 -20.837999343872070312 -20.840360641479492188 -20.867029190063476562 -20.867029190063476562 -20.900310516357421875 -20.901250839233398438 -20.902599334716796875 -20.923450469970703125 -20.923450469970703125 -20.939670562744140625 -20.956249237060546875 -20.983020782470703125 -20.994230270385742188 -20.994230270385742188 -20.957139968872070312 -20.964689254760742188 -20.931089401245117188 -20.87335968017578125 -20.87335968017578125 -20.737089157104492188 -20.658880233764648438 -20.608440399169921875 -20.542100906372070312 -20.542100906372070312 -20.480640411376953125 -20.424800872802734375
-18.81649017333984375 -18.7320404052734375 -18.561880111694335938 -18.476060867309570312 -18.357099533081054688 -18.357099533081054688 -18.215810775756835938 -18.124799728393554688 -18.066499710083007812 -18.0518798828125 -18.0518798828125 -18.295110702514648438 -19.060909271240234375 -19.51074981689453125 -19.684009552001953125 -19.684009552001953125 -19.65525054931640625 -19.646329879760742188 -19.593149185180664062 -19.511199951171875 -19.511199951171875 -19.447719573974609375 -19.407230377197265625 -19.303379058837890625 -19.251140594482421875 -19.251140594482421875 -19.225799560546875 -19.162250518798828125 -19.147579193115234375 -19.11811065673828125 -19.11811065673828125 -19.077230453491210938 -19.031230926513671875 -18.96862030029296875 -18.960840225219726562 -18.960840225219726562 -18.942869186401367188 -18.910600662231445312 -18.788900375366210938 -18.713840484619140625 -18.713840484619140625 -18.741540908813476562 -18.74105072021484375 -18.676050186157226562 -18.709550857543945312 -18.709550857543945312 -18.726209640502929688 -18.824949264526367188 -19.065929412841796875 -19.599069595336914062 -19.599069595336914062 -20.364789962768554688 -20.971210479736328125 -21.35475921630859375 -21.612340927124023438 -21.612340927124023438 -21.836210250854492188 -22.004770278930664062 -22.122060775756835938 -22.202159881591796875 -22.202159881591796875 -22.327600479125976562 -22.356090545654296875 -22.498960494995117188 -22.539060592651367188 -22.539060592651367188 -22.615320205688476562 -22.663190841674804688 -22.6789093017578125 -22.664279937744140625 -22.664279937744140625 -22.642709732055664062 -22.611669540405273438 -22.564470291137695312 -22.50370025634765625 -22.50370025634765625 -22.433319091796875 -22.352369308471679688 -22.260339736938476562 -22.147129058837890625 -22.009099960327148438 -22.009099960327148438 -21.859569549560546875 -21.70825958251953125 -21.564409255981445312 -21.429800033569335938 -21.429800033569335938 -21.29051971435546875 -21.166439056396484375 -21.092939376831054688 -21.035009384155273438 -21.035009384155273438 -20.900119781494140625 -20.852390289306640625 -20.813180923461914062 -20.789960861206054688 -20.789960861206054688 -20.752809524536132812 -20.786279678344726562 -20.814260482788085938 -20.847349166870117188 -20.847349166870117188 -20.860319137573242188 -20.87042999267578125 -20.8799591064453125 -20.899000167846679688 -20.899000167846679688 -20.898790359497070312 -20.861799240112304688 -20.868349075317382812 -20.856149673461914062 -20.856149673461914062 -20.860269546508789062 -20.88227081298828125 -20.917619705200195312 -20.937040328979492188 -20.937040328979492188 -20.93943023681640625 -20.9507293701171875 -20.9595794677734375 -20.988050460815429688 -20.988050460815429688 -21.029340744018554688 -20.97389984130859375 -20.9225006103515625 -20.832429885864257812 -20.832429885864257812 -20.690080642700195312 -20.642339706420898438 -20.625629425048828125 -20.554290771484375 -20.554290771484375 -20.469480514526367188 -20.45513916015625
-18.994089126586914062 -18.854869842529296875 -18.745410919189453125 -18.691099166870117188 -18.518369674682617188 -18.518369674682617188 -18.43939971923828125 -18.3115997314453125 -18.260309219360351562 -18.182659149169921875 -18.182659149169921875 -18.095289230346679688 -18.157800674438476562 -18.28363037109375 -18.9955596923828125 -18.9955596923828125 -19.509990692138671875 -19.738580703735351562 -19.656829833984375 -19.586690902709960938 -19.586690902709960938 -19.498249053955078125 -19.456140518188476562 -19.350160598754882812 -19.291540145874023438 -19.291540145874023438 -19.271320343017578125 -19.2502593994140625 -19.193780899047851562 -19.15229034423828125 -19.15229034423828125 -19.149599075317382812 -19.128759384155273438 -19.118940353393554688 -19.091100692749023438 -19.091100692749023438 -19.045240402221679688 -19.023550033569335938 -18.994449615478515625 -18.95822906494140625 -18.95822906494140625 -18.9130096435546875 -18.959310531616210938 -18.932519912719726562 -18.934919357299804688 -18.934919357299804688 -18.93556976318359375 -18.925729751586914062 -18.910970687866210938 -19.01367950439453125 -19.01367950439453125 -19.304759979248046875 -19.982549667358398438 -21.029819488525390625 -21.598649978637695312 -21.598649978637695312 -21.9018402099609375 -22.131120681762695312 -22.264459609985351562 -22.432790756225585938 -22.347349166870117188 -22.431600570678710938 -22.513349533081054688 -22.582309722900390625 -22.593769073486328125 -22.645709991455078125 -22.645709991455078125 -22.65196990966796875 -22.666410446166992188 -22.6370391845703125 -22.630489349365234375 -22.630489349365234375 -22.608270645141601562 -22.556640625 -22.49539947509765625 -22.427579879760742188 -22.427579879760742188 -22.342790603637695312 -22.248880386352539062 -22.134260177612304688 -21.997859954833984375 -21.997859954833984375 -21.852519989013671875 -21.704259872436523438 -21.556629180908203125 -21.41107940673828125 -21.41107940673828125 -21.277139663696289062 -21.161340713500976562 -21.063280105590820312 -20.990350723266601562 -20.990350723266601562 -20.9330291748046875 -20.890209197998046875 -20.849840164184570312 -20.81352996826171875 -20.81352996826171875 -20.78227996826171875 -20.825609207153320312 -20.774900436401367188 -20.805280685424804688 -20.805280685424804688 -20.816270828247070312 -20.823209762573242188 -20.835939407348632812 -20.880529403686523438 -20.880529403686523438 -20.927659988403320312 -20.954530715942382812 -20.963909149169921875 -20.992540359497070312 -20.992540359497070312 -21.0115509033203125 -21.030170440673828125 -21.059850692749023438 -21.090179443359375 -21.090179443359375 -21.095479965209960938 -21.09922027587890625 -21.053209304809570312 -21.0285797119140625 -21.0285797119140625 -20.970449447631835938 -20.956960678100585938 -20.889009475708007812 -20.8310394287109375 -20.8310394287109375 -20.697940826416015625 -20.649700164794921875 -20.602449417114257812 -20.53578948974609375 -20.53578948974609375 -20.455900192260742188 -20.480150222778320312
-19.388219833374023438 -19.32353973388671875 -19.193849563598632812 -19.113580703735351562 -19.003660202026367188 -19.003660202026367188 -18.904230117797851562 -18.845109939575195312 -18.758279800415039062 -18.669490814208984375 -18.669490814208984375 -18.591709136962890625 -18.299390792846679688 -18.2181396484375 -18.244859695434570312 -18.244859695434570312 -18.404590606689453125 -18.941549301147460938 -19.472110748291015625 -19.550760269165039062 -19.550760269165039062 -19.638109207153320312 -19.57659912109375 -19.4861297607421875 -19.4265899658203125 -19.4265899658203125 -19.387020111083984375 -19.267950057983398438 -19.244319915771484375 -19.15509033203125 -19.15509033203125 -19.153919219970703125 -19.15103912353515625 -19.150920867919921875 -19.12615966796875 -19.12615966796875 -19.125169754028320312 -19.146640777587890625 -19.130559921264648438 -19.146600723266601562 -19.146600723266601562 -19.128690719604492188 -19.103679656982421875 -19.0881805419921875 -19.09362030029296875 -19.047079086303710938 -19.047079086303710938 -19.042139053344726562 -19.015829086303710938 -19.074609756469726562 -19.18029022216796875 -19.18029022216796875 -19.478700637817382812 -20.217149734497070312 -21.38069915771484375 -21.860759735107421875 -21.860759735107421875 -22.143899917602539062 -22.310749053955078125 -22.49539947509765625 -22.571470260620117188 -22.571470260620117188 -22.6848297119140625 -22.789829254150390625 -22.7278900146484375 -22.780429840087890625 -22.780429840087890625 -22.764429092407226562 -22.81781005859375 -22.762250900268554688 -22.721719741821289062 -22.721719741821289062 -22.646200180053710938 -22.617290496826171875 -22.514959335327148438 -22.432630538940429688 -22.432630538940429688 -22.381910324096679688 -22.238529205322265625 -22.106470108032226562 -22.002859115600585938 -22.002859115600585938 -21.826969146728515625 -21.679250717163085938 -21.539159774780273438 -21.395450592041015625 -21.395450592041015625 -21.262010574340820312 -21.149309158325195312 -21.058099746704101562 -20.989269256591796875 -20.989269256591796875 -20.934680938720703125 -20.890010833740234375 -20.852880477905273438 -20.8248291015625 -20.8248291015625 -20.80789947509765625 -20.805780410766601562 -20.81114959716796875 -20.801830291748046875 -20.801830291748046875 -20.786769866943359375 -20.803670883178710938 -20.858629226684570312 -20.871349334716796875 -20.871349334716796875 -20.892910003662109375 -20.950969696044921875 -20.9708404541015625 -21.000759124755859375 -21.000759124755859375 -21.026519775390625 -21.076730728149414062 -21.090030670166015625 -21.114740371704101562 -21.114740371704101562 -21.1264801025390625 -21.136400222778320312 -21.107189178466796875 -21.059520721435546875 -21.059520721435546875 -21.057249069213867188 -21.018169403076171875 -20.97425079345703125 -20.8563995361328125 -20.8563995361328125 -20.72805023193359375 -20.686960220336914062 -20.635240554809570312 -20.55381011962890625 -20.55381011962890625 -20.480159759521484375 -20.500579833984375
-19.557020187377929688 -19.475309371948242188 -19.402530670166015625 -19.329639434814453125 -19.231969833374023438 -19.231969833374023438 -19.159509658813476562 -19.078510284423828125 -19.015880584716796875 -18.95233917236328125 -18.95233917236328125 -18.885839462280273438 -18.821130752563476562 -18.76374053955078125 -18.719760894775390625 -18.719760894775390625 -18.682159423828125 -18.6912994384765625 -18.694370269775390625 -18.782680511474609375 -18.782680511474609375 -18.956439971923828125 -19.192230224609375 -19.416849136352539062 -19.510950088500976562 -19.510950088500976562 -19.5692596435546875 -19.476579666137695312 -19.452850341796875 -19.421459197998046875 -19.383380889892578125 -19.383380889892578125 -19.3375396728515625 -19.353120803833007812 -19.133310317993164062 -19.217710494995117188 -19.217710494995117188 -19.1500091552734375 -19.172969818115234375 -19.2191009521484375 -19.23509979248046875 -19.23509979248046875 -19.220819473266601562 -19.24684906005859375 -19.234310150146484375 -19.212640762329101562 -19.212640762329101562 -19.2279205322265625 -19.218950271606445312 -19.190160751342773438 -19.239740371704101562 -19.239740371704101562 -19.38137054443359375 -19.717559814453125 -20.522029876708984375 -21.629560470581054688 -21.629560470581054688 -22.104089736938476562 -22.333499908447265625 -22.55735015869140625 -22.664089202880859375 -22.664089202880859375 -22.757799148559570312 -22.8535308837890625 -22.867460250854492188 -22.874010086059570312 -22.874010086059570312 -22.887720108032226562 -22.869960784912109375 -22.873529434204101562 -22.839010238647460938 -22.839010238647460938 -22.763879776000976562 -22.642129898071289062 -22.566129684448242188 -22.467929840087890625 -22.467929840087890625 -22.40232086181640625 -22.281290054321289062 -22.098880767822265625 -22.003099441528320312 -22.003099441528320312 -21.827770233154296875 -21.719890594482421875 -21.47866058349609375 -21.339069366455078125 -21.339069366455078125 -21.238889694213867188 -21.116870880126953125 -21.000080108642578125 -20.925830841064453125 -20.925830841064453125 -20.919179916381835938 -20.864599227905273438 -20.846160888671875 -20.824100494384765625 -20.824100494384765625 -20.811269760131835938 -20.81427001953125 -20.81678009033203125 -20.816959381103515625 -20.816959381103515625 -20.820299148559570312 -20.836069107055664062 -20.842279434204101562 -20.868379592895507812 -20.868379592895507812 -20.886669158935546875 -20.90409088134765625 -20.946390151977539062 -21.002340316772460938 -21.002340316772460938 -21.04994964599609375 -21.137050628662109375 -21.08766937255859375 -21.100070953369140625 -21.100070953369140625 -21.123920440673828125 -21.113870620727539062 -21.109380722045898438 -21.081159591674804688 -21.081159591674804688 -21.054830551147460938 -21.009710311889648438 -20.967100143432617188 -20.8133697509765625 -20.8133697509765625 -20.74011993408203125 -20.71775054931640625 -20.663089752197265625 -20.583650588989257812 -20.583650588989257812 -20.518739700317382812 -20.5577392578125
-19.706819534301757812 -19.628599166870117188 -19.56143951416015625 -19.538549423217773438 -19.464879989624023438 -19.464879989624023438 -19.430120468139648438 -19.3558197021484375 -19.286279678344726562 -19.235399246215820312 -19.235399246215820312 -19.19915008544921875 -19.104740142822265625 -19.076509475708007812 -19.01045989990234375 -18.993169784545898438 -18.993169784545898438 -18.959629058837890625 -18.957700729370117188 -19.005109786987304688 -19.076520919799804688 -19.076520919799804688 -19.2143707275390625 -19.368450164794921875 -19.529390335083007812 -19.574480056762695312 -19.574480056762695312 -19.5851898193359375 -19.507169723510742188 -19.4950103759765625 -19.46298980712890625 -19.46298980712890625 -19.443250656127929688 -19.44525909423828125 -19.391170501708984375 -19.4522705078125 -19.4522705078125 -19.4136199951171875 -19.447210311889648438 -19.433099746704101562 -19.480749130249023438 -19.480749130249023438 -19.473590850830078125 -19.522909164428710938 -19.486270904541015625 -19.561670303344726562 -19.561670303344726562 -19.525089263916015625 -19.524450302124023438 -19.48625946044921875 -19.505859375 -19.505859375 -19.55326080322265625 -19.627550125122070312 -19.839599609375 -20.308820724487304688 -20.961009979248046875 -21.951299667358398438 -22.385950088500976562 -22.586170196533203125 -22.77001953125 -22.77001953125 -22.857549667358398438 -22.922849655151367188 -22.984239578247070312 -22.961050033569335938 -22.961050033569335938 -22.9454498291015625 -22.951290130615234375 -22.904499053955078125 -22.880140304565429688 -22.880140304565429688 -22.817079544067382812 -22.7178802490234375 -22.649200439453125 -22.498460769653320312 -22.498460769653320312 -22.388580322265625 -22.308069229125976562 -22.100019454956054688 -22.003339767456054688 -22.003339767456054688 -21.81121063232421875 -21.692010879516601562 -21.509859085083007812 -21.356220245361328125 -21.356220245361328125 -21.259000778198242188 -21.131250381469726562 -21.037099838256835938 -20.989940643310546875 -20.989940643310546875 -20.963300704956054688 -20.876800537109375 -20.866519927978515625 -20.83448028564453125 -20.83448028564453125 -20.803030014038085938 -20.822870254516601562 -20.81504058837890625 -20.814680099487304688 -20.814680099487304688 -20.811590194702148438 -20.84474945068359375 -20.865909576416015625 -20.890359878540039062 -20.890359878540039062 -20.908090591430664062 -20.931100845336914062 -20.965299606323242188 -21.000829696655273438 -21.000829696655273438 -21.026599884033203125 -21.037990570068359375 -21.034189224243164062 -21.024869918823242188 -21.024869918823242188 -21.015199661254882812 -21.00762939453125 -20.99897003173828125 -20.978420257568359375 -20.978420257568359375 -20.938510894775390625 -20.889020919799804688 -20.817670822143554688 -20.809999465942382812 -20.809999465942382812 -20.764299392700195312 -20.75115966796875 -20.686410903930664062 -20.582479476928710938 -20.582479476928710938 -20.534969329833984375 -20.570520401000976562
-20.203189849853515625 -20.203189849853515625 -20.110759735107421875 -20.05699920654296875 -20.027730941772460938 -19.96096038818359375 -19.96096038818359375 -19.85099029541015625 -19.536489486694335938 -19.486799240112304688 -19.442089080810546875 -19.442089080810546875 -19.401149749755859375 -19.38098907470703125 -19.31880950927734375 -19.33412933349609375 -19.33412933349609375 -19.248199462890625 -19.217630386352539062 -19.22245025634765625 -19.271970748901367188 -19.271970748901367188 -19.349260330200195312 -19.444910049438476562 -19.561109542846679688 -19.660249710083007812 -19.660249710083007812 -19.731519699096679688 -19.71389007568359375 -19.68614959716796875 -19.6476898193359375 -19.6476898193359375 -19.577539443969726562 -19.555509567260742188 -19.527830123901367188 -19.501989364624023438 -19.501989364624023438 -19.497579574584960938 -19.547229766845703125 -19.502729415893554688 -19.546640396118164062 -19.546640396118164062 -19.573139190673828125 -19.636030197143554688 -19.638149261474609375 -19.68556976318359375 -19.68556976318359375 -19.71060943603515625 -19.726549148559570312 -19.743539810180664062 -19.726680755615234375 -19.726680755615234375 -19.77191925048828125 -19.7803192138671875 -19.914760589599609375 -20.108280181884765625 -20.108280181884765625 -20.6558990478515625 -21.737600326538085938 -22.505889892578125 -22.818019866943359375 -22.818019866943359375 -22.955059051513671875 -23.0799407958984375 -23.114889144897460938 -23.174200057983398438 -23.174200057983398438 -23.1812591552734375 -23.210170745849609375 -23.209369659423828125 -23.128110885620117188 -23.128110885620117188 -23.03546905517578125 -22.906679153442382812 -22.775730133056640625 -22.699560165405273438 -22.699560165405273438 -22.546869277954101562 -22.319210052490234375 -22.151639938354492188 -21.983249664306640625 -21.983249664306640625 -21.792020797729492188 -21.651889801025390625 -21.444730758666992188 -21.335260391235351562 -21.335260391235351562 -21.2178497314453125 -21.162450790405273438 -21.093109130859375 -21.011850357055664062 -21.011850357055664062 -21.013759613037109375 -20.91094970703125 -20.90879058837890625 -20.829290390014648438 -20.829290390014648438 -20.843599319458007812 -20.805980682373046875 -20.812490463256835938 -20.816570281982421875 -20.816570281982421875 -20.850790023803710938 -20.847070693969726562 -20.843669891357421875 -20.884569168090820312 -20.884569168090820312 -20.877119064331054688 -20.932199478149414062 -20.978219985961914062 -21.002199172973632812 -21.002199172973632812 -21.031290054321289062 -21.036550521850585938 -21.023529052734375 -21.011810302734375 -21.011810302734375 -20.998430252075195312 -20.983819961547851562 -20.96627044677734375 -20.9354095458984375 -20.9354095458984375 -20.889720916748046875 -20.826509475708007812 -20.737640380859375 -20.634389877319335938 -20.634389877319335938 -20.549129486083984375 -20.4902496337890625 -20.426660537719726562 -20.3404998779296875 -20.3404998779296875 -20.285600662231445312 -20.274679183959960938
-20.654499053955078125 -20.654499053955078125 -20.55233001708984375 -20.475500106811523438 -20.411279678344726562 -20.32305908203125 -20.32305908203125 -20.239629745483398438 -20.194639205932617188 -20.179639816284179688 -20.106389999389648438 -20.106389999389648438 -20.092159271240234375 -20.01081085205078125 -19.96974945068359375 -19.919759750366210938 -19.919759750366210938 -19.936229705810546875 -19.904979705810546875 -19.837799072265625 -19.867580413818359375 -19.867580413818359375 -19.8499298095703125 -19.87509918212890625 -19.88011932373046875 -19.937719345092773438 -19.937719345092773438 -19.992410659790039062 -20.062589645385742188 -20.0686798095703125 -19.849639892578125 -19.849639892578125 -19.810190200805664062 -19.76544952392578125 -19.742059707641601562 -19.712720870971679688 -19.712720870971679688 -19.691759109497070312 -19.719049453735351562 -19.68795013427734375 -19.680629730224609375 -19.680629730224609375 -19.647640228271484375 -19.712589263916015625 -19.76078033447265625 -19.791219711303710938 -19.791219711303710938 -19.843690872192382812 -19.868349075317382812 -19.946340560913085938 -19.9684600830078125 -19.9684600830078125 -19.989530563354492188 -19.978460311889648438 -20.062189102172851562 -20.147340774536132812 -20.147340774536132812 -20.370990753173828125 -20.862379074096679688 -22.219430923461914062 -22.8168792724609375 -22.8168792724609375 -23.102659225463867188 -23.239000320434570312 -23.287189483642578125 -23.310590744018554688 -23.310590744018554688 -23.3015899658203125 -23.242799758911132812 -23.212949752807617188 -23.163469314575195312 -23.163469314575195312 -23.07064056396484375 -22.961330413818359375 -22.853839874267578125 -22.702119827270507812 -22.702119827270507812 -22.57389068603515625 -22.409580230712890625 -22.29141998291015625 -22.058370590209960938 -22.058370590209960938 -21.808460235595703125 -21.609920501708984375 -21.416120529174804688 -21.299840927124023438 -21.299840927124023438 -21.15032958984375 -21.090990066528320312 -21.03282928466796875 -20.998800277709960938 -20.998800277709960938 -20.96186065673828125 -20.90933990478515625 -20.838750839233398438 -20.80651092529296875 -20.80651092529296875 -20.787710189819335938 -20.8157806396484375 -20.860570907592773438 -20.89228057861328125 -20.89228057861328125 -20.899320602416992188 -20.914239883422851562 -20.918569564819335938 -20.930559158325195312 -20.930559158325195312 -20.941190719604492188 -20.954339981079101562 -20.973810195922851562 -21.017160415649414062 -21.017160415649414062 -21.047540664672851562 -21.063089370727539062 -21.03376007080078125 -21.015550613403320312 -21.015550613403320312 -20.998699188232421875 -20.973909378051757812 -20.953199386596679688 -20.910030364990234375 -20.910030364990234375 -20.859079360961914062 -20.790559768676757812 -20.692750930786132812 -20.589010238647460938 -20.504199981689453125 -20.504199981689453125 -20.437070846557617188 -20.368959426879882812 -20.3022003173828125 -20.246730804443359375 -20.246730804443359375 -20.197950363159179688
-21.331699371337890625 -21.331699371337890625 -21.236120223999023438 -21.11016082763671875 -20.998090744018554688 -20.851800918579101562 -20.851800918579101562 -20.74822998046875 -20.65637969970703125 -20.644830703735351562 -20.573980331420898438 -20.573980331420898438 -20.509469985961914062 -20.451349258422851562 -20.422809600830078125 -20.3812103271484375 -20.3812103271484375 -20.325849533081054688 -20.316099166870117188 -20.252710342407226562 -20.23760986328125 -20.23760986328125 -20.198389053344726562 -20.246019363403320312 -20.225299835205078125 -20.237880706787109375 -20.237880706787109375 -20.26168060302734375 -20.297670364379882812 -20.301679611206054688 -20.301259994506835938 -20.301259994506835938 -20.277849197387695312 -20.235170364379882812 -20.226449966430664062 -20.201040267944335938 -20.201040267944335938 -20.184650421142578125 -20.16033935546875 -20.164609909057617188 -20.14514923095703125 -20.14514923095703125 -20.159849166870117188 -20.194410324096679688 -20.163030624389648438 -20.215089797973632812 -20.215089797973632812 -20.255590438842773438 -20.299890518188476562 -20.349180221557617188 -20.43087005615234375 -20.43087005615234375 -20.190889358520507812 -20.188470840454101562 -20.25019073486328125 -20.287950515747070312 -20.287950515747070312 -20.390989303588867188 -20.54113006591796875 -21.127080917358398438 -22.406110763549804688 -22.406110763549804688 -23.078399658203125 -23.353160858154296875 -23.455629348754882812 -23.475849151611328125 -23.475849151611328125 -23.480939865112304688 -23.455610275268554688 -23.36576080322265625 -23.300180435180664062 -23.300180435180664062 -23.161260604858398438 -23.053150177001953125 -22.880720138549804688 -22.725780487060546875 -22.725780487060546875 -22.556919097900390625 -22.3835296630859375 -22.191509246826171875 -22.0049896240234375 -22.0049896240234375 -21.77462005615234375 -21.598779678344726562 -21.407520294189453125 -21.231679916381835938 -21.231679916381835938 -21.1335906982421875 -21.013429641723632812 -20.949129104614257812 -20.874109268188476562 -20.874109268188476562 -20.802640914916992188 -20.752000808715820312 -20.664499282836914062 -20.606370925903320312 -20.606370925903320312 -20.554449081420898438 -20.544200897216796875 -20.58322906494140625 -20.626129150390625 -20.626129150390625 -20.662830352783203125 -20.782030105590820312 -20.808450698852539062 -20.871730804443359375 -20.937000274658203125 -20.937000274658203125 -20.96775054931640625 -20.979280471801757812 -20.948699951171875 -20.988809585571289062 -20.988809585571289062 -20.961559295654296875 -20.94355010986328125 -20.893680572509765625 -20.890859603881835938 -20.890859603881835938 -20.8152008056640625 -20.840990066528320312 -20.779430389404296875 -20.881559371948242188 -20.881559371948242188 -20.8027496337890625 -20.676219940185546875 -20.564550399780273438 -20.4849700927734375 -20.4849700927734375 -20.4182891845703125 -20.34069061279296875 -20.276399612426757812 -20.224180221557617188 -20.224180221557617188 -20.170490264892578125
-22.414770126342773438 -22.414770126342773438 -22.359859466552734375 -21.781240463256835938 -21.63484954833984375 -21.530149459838867188 -21.530149459838867188 -21.43357086181640625 -21.313550949096679688 -21.245550155639648438 -21.171039581298828125 -21.171039581298828125 -21.104709625244140625 -21.052099227905273438 -20.941099166870117188 -20.913730621337890625 -20.913730621337890625 -20.803379058837890625 -20.744579315185546875 -20.692300796508789062 -20.68434906005859375 -20.68434906005859375 -20.655759811401367188 -20.664150238037109375 -20.709600448608398438 -20.689470291137695312 -20.689470291137695312 -20.685869216918945312 -20.677219390869140625 -20.67205047607421875 -20.643970489501953125 -20.643970489501953125 -20.657989501953125 -20.56082916259765625 -20.584760665893554688 -20.5150604248046875 -20.5150604248046875 -20.483539581298828125 -20.42758941650390625 -20.379240036010742188 -20.387020111083984375 -20.387020111083984375 -20.412389755249023438 -20.43885040283203125 -20.438180923461914062 -20.433929443359375 -20.433929443359375 -20.47415924072265625 -20.500339508056640625 -20.555349349975585938 -20.646600723266601562 -20.646600723266601562 -20.721429824829101562 -20.7900390625 -20.862199783325195312 -20.9000091552734375 -20.9000091552734375 -20.9318695068359375 -20.961519241333007812 -21.0332794189453125 -21.110830307006835938 -21.110830307006835938 -21.496250152587890625 -22.425640106201171875 -23.299039840698242188 -23.512479782104492188 -23.512479782104492188 -23.593790054321289062 -23.538560867309570312 -23.459539413452148438 -23.415660858154296875 -23.415660858154296875 -23.2414703369140625 -23.120119094848632812 -22.923570632934570312 -22.7845001220703125 -22.7845001220703125 -22.593679428100585938 -22.410879135131835938 -22.201869964599609375 -21.935079574584960938 -21.935079574584960938 -21.688869476318359375 -21.427370071411132812 -21.257219314575195312 -21.114660263061523438 -21.114660263061523438 -20.969999313354492188 -20.857309341430664062 -20.806339263916015625 -20.7013397216796875 -20.574289321899414062 -20.574289321899414062 -20.52169036865234375 -20.466379165649414062 -20.405420303344726562 -20.326929092407226562 -20.326929092407226562 -20.27050018310546875 -20.19680023193359375 -20.189300537109375 -20.207889556884765625 -20.207889556884765625 -20.21656036376953125 -20.276319503784179688 -20.420270919799804688 -20.520780563354492188 -20.520780563354492188 -20.659299850463867188 -20.791959762573242188 -20.86338043212890625 -20.927400588989257812 -20.927400588989257812 -20.936399459838867188 -20.9095306396484375 -20.836620330810546875 -20.829599380493164062 -20.829599380493164062 -20.753210067749023438 -20.746759414672851562 -20.625669479370117188 -20.642099380493164062 -20.642099380493164062 -20.533420562744140625 -20.5055999755859375 -20.4006195068359375 -20.341600418090820312 -20.341600418090820312 -20.273199081420898438 -20.25215911865234375 -20.222940444946289062 -20.184490203857421875 -20.184490203857421875 -20.136449813842773438
